# .PCD v0.7 - Point Cloud Data file format
VERSION 0.7
FIELDS x y z intensity
SIZE 4 4 4 4
TYPE F F F F
COUNT 1 1 1 1
WIDTH 312
HEIGHT 1
VIEWPOINT 0 0 0 1 0 0 0
POINTS 312
DATA ascii
7.7930002 0.43099999 -0.90700001 0.99000001
7.7659998 0.454 -0.903 0.99000001
7.763 0.479 -0.903 0.99000001
7.8010001 0.505 -0.90799999 0.99000001
8.0600004 0.57200003 -0.94599998 0.19
7.7670002 -0.88 -0.90799999 0.97000003
7.7880001 -0.85699999 -0.91100001 0.88999999
7.7849998 -0.83200002 -0.91000003 0.87
7.77 -0.81800002 -0.90799999 0.89999998
7.8610001 -0.80299997 -0.92000002 0.69999999
7.6279998 0.1 -0.91600001 0.36000001
7.6259999 0.124 -0.91600001 0.25
7.6209998 0.148 -0.91500002 0.44
7.6230001 0.17200001 -0.91600001 0.41999999
7.6300001 0.19599999 -0.917 0.40000001
7.631 0.22 -0.917 0.38999999
7.631 0.244 -0.917 0.38999999
7.6420002 0.257 -0.91900003 0.38
7.6550002 0.28099999 -0.921 0.36000001
7.658 0.30500001 -0.921 0.37
7.6630001 0.33000001 -0.92199999 0.36000001
7.664 0.354 -0.92299998 0.28999999
7.665 0.37799999 -0.92299998 0.20999999
7.6760001 0.391 -0.92500001 0.23
7.75 0.419 -0.93599999 0.63999999
7.6890001 0.44 -0.92699999 0.99000001
7.6599998 0.46200001 -0.92299998 0.99000001
7.6589999 0.486 -0.92299998 0.99000001
7.5149999 0.5 -0.90200001 0.99000001
7.9400001 0.55500001 -0.96399999 0.62
7.8119998 0.55800003 -0.94599998 0.30000001
8.2189999 -1.018 -1.012 0.13
7.7350001 -0.91100001 -0.94 0.17
7.665 -0.87800002 -0.92900002 0.93000001
7.6030002 -0.847 -0.91900003 0.99000001
7.4749999 -0.82099998 -0.89999998 0.99000001
7.5780001 -0.80800003 -0.91500002 0.99000001
7.6290002 -0.78899997 -0.92199999 0.99000001
7.9330001 -0.79500002 -0.96600002 0.74000001
7.7049999 -0.74800003 -0.93300003 0.38
7.6560001 -0.71899998 -0.92500001 0.25
7.6539998 -0.69499999 -0.92500001 0.31999999
7.6300001 -0.68099999 -0.921 0.30000001
7.6360002 -0.65700001 -0.921 0.31999999
7.618 -0.63099998 -0.91799998 0.33000001
7.618 -0.60699999 -0.91799998 0.34999999
7.612 -0.583 -0.917 0.36000001
7.5960002 -0.55800003 -0.91399997 0.36000001
7.6020002 -0.53399998 -0.91500002 0.34999999
7.6129999 -0.523 -0.91600001 0.38
7.5900002 -0.49700001 -0.91299999 0.38
7.6079998 -0.47400001 -0.91500002 0.57999998
7.6030002 -0.426 -0.91399997 0.75
7.5510001 -0.40000001 -0.90600002 0.91000003
7.6110001 -0.37900001 -0.91500002 0.83999997
7.5599999 -0.36399999 -0.90700001 0.92000002
7.5630002 -0.34099999 -0.90799999 0.88999999
7.5149999 -0.315 -0.90100002 0.99000001
7.6069999 -0.29499999 -0.91399997 0.83999997
7.6230001 -0.24699999 -0.91600001 0.86000001
7.5190001 -0.20900001 -0.90100002 0.99000001
7.5689998 -0.186 -0.90799999 0.88999999
7.5700002 -0.139 -0.90799999 0.89999998
7.5409999 -0.090999998 -0.903 0.99000001
7.5609999 -0.079000004 -0.90600002 0.93000001
7.553 -0.055 -0.90499997 0.93000001
7.632 0.0070000002 -0.972 0.37
7.6220002 0.030999999 -0.97000003 0.30000001
7.6240001 0.055 -0.97000003 0.30000001
7.6570001 0.079000004 -0.97600001 0.19
7.6529999 0.103 -0.97500002 0.51999998
7.6430001 0.127 -0.97299999 0.43000001
7.6430001 0.139 -0.97299999 0.41
7.6539998 0.163 -0.97500002 0.38
7.6500001 0.18700001 -0.97500002 0.38
7.6570001 0.211 -0.97600001 0.41999999
7.6599998 0.235 -0.97600001 0.38999999
7.6589999 0.25999999 -0.97600001 0.40000001
7.6700001 0.28400001 -0.97799999 0.41
7.6680002 0.296 -0.97799999 0.36000001
7.6810002 0.32100001 -0.98000002 0.36000001
7.6799998 0.345 -0.98000002 0.36000001
7.6929998 0.36899999 -0.98199999 0.18000001
7.7189999 0.39500001 -0.986 0.38
7.7410002 0.41999999 -0.99000001 0.31
7.73 0.44400001 -0.98900002 0.54000002
7.7789998 0.45899999 -0.99599999 0.20999999
7.7729998 0.48300001 -0.99599999 0.55000001
7.756 0.50700003 -0.99299997 0.30000001
7.7600002 0.53100002 -0.99400002 0.49000001
7.7989998 -0.954 -1.006 0.18000001
7.7610002 -0.92400002 -1 0.19
7.723 -0.89499998 -0.99299997 0.23
7.7589998 -0.875 -0.99900001 0.15000001
7.75 -0.84899998 -0.99699998 0.99000001
7.737 -0.82300001 -0.99400002 0.99000001
7.7550001 -0.80000001 -0.99699998 0.62
7.7010002 -0.78200001 -0.98799998 0.43000001
7.6880002 -0.75700003 -0.986 0.47999999
7.6570001 -0.72899997 -0.98100001 0.30000001
7.6550002 -0.70499998 -0.98000002 0.31999999
7.6440001 -0.67900002 -0.97799999 0.30000001
7.6420002 -0.65499997 -0.977 0.34
7.6399999 -0.63099998 -0.977 0.36000001
7.6329999 -0.61799997 -0.97600001 0.33000001
7.6350002 -0.59399998 -0.97600001 0.34999999
7.645 -0.57099998 -0.977 0.38
7.631 -0.54500002 -0.97399998 0.34
7.6279998 -0.52100003 -0.97399998 0.38
7.6300001 -0.49700001 -0.97399998 0.37
7.6389999 -0.47400001 -0.97500002 0.28999999
7.6659999 -0.463 -0.97899997 0.67000002
7.6240001 -0.43700001 -0.972 0.25999999
7.6149998 -0.412 -0.97100002 0.33000001
7.6100001 -0.38800001 -0.97000003 0.33000001
7.6230001 -0.36500001 -0.972 0.33000001
7.6170001 -0.34 -0.97000003 0.36000001
7.619 -0.32800001 -0.97100002 0.36000001
7.612 -0.30399999 -0.96899998 0.34
7.6149998 -0.28 -0.97000003 0.36000001
7.6220002 -0.257 -0.97100002 0.36000001
7.619 -0.233 -0.97000003 0.36000001
7.6160002 -0.208 -0.96899998 0.36000001
7.618 -0.185 -0.97000003 0.37
7.618 -0.17299999 -0.97000003 0.41999999
7.6149998 -0.149 -0.96899998 0.38
7.6110001 -0.125 -0.96899998 0.36000001
7.6220002 -0.101 -0.97000003 0.38
7.618 -0.077 -0.96899998 0.34
7.6240001 -0.052999999 -0.97000003 0.34
7.638 -0.028999999 -0.97299999 0.38999999
7.6240001 -0.0049999999 -0.97000003 0.30000001
7.619 0.0080000004 -1.085 0.38
7.619 0.032000002 -1.085 0.36000001
7.625 0.056000002 -1.085 0.36000001
7.619 0.079999998 -1.085 0.36000001
7.6170001 0.103 -1.084 0.36000001
7.625 0.116 -1.085 0.34999999
7.6300001 0.14 -1.086 0.36000001
7.6360002 0.164 -1.087 0.34
7.6350002 0.18799999 -1.087 0.31999999
7.6399999 0.212 -1.0880001 0.38
7.645 0.236 -1.089 0.31
7.6570001 0.26100001 -1.091 0.34999999
7.6539998 0.273 -1.091 0.34999999
7.6550002 0.29699999 -1.091 0.34
7.6539998 0.32100001 -1.091 0.28
7.6669998 0.345 -1.0930001 0.2
7.678 0.37 -1.095 0.50999999
7.5999999 0.414 -1.0829999 0.56999999
7.5489998 -0.76599997 -1.079 0.11
7.573 -0.72000003 -1.0829999 0.56999999
7.6129999 -0.69999999 -1.089 0.30000001
7.6469998 -0.67799997 -1.094 0.34
7.6370001 -0.653 -1.092 0.34999999
7.6279998 -0.64099997 -1.09 0.30000001
7.6339998 -0.61699998 -1.091 0.38
7.6220002 -0.59200001 -1.089 0.31999999
7.6300001 -0.56800002 -1.09 0.34
7.6100001 -0.54299998 -1.086 0.34999999
7.618 -0.51899999 -1.087 0.36000001
7.6170001 -0.495 -1.087 0.36000001
7.6139998 -0.48300001 -1.086 0.33000001
7.6100001 -0.45899999 -1.085 0.34
7.6069999 -0.435 -1.085 0.34999999
7.6020002 -0.41100001 -1.084 0.37
7.6100001 -0.38699999 -1.085 0.36000001
7.6090002 -0.36300001 -1.084 0.36000001
7.6040001 -0.33899999 -1.0829999 0.36000001
7.6069999 -0.32699999 -1.084 0.36000001
7.5939999 -0.303 -1.081 0.36000001
7.6030002 -0.27900001 -1.0829999 0.37
7.6030002 -0.255 -1.0829999 0.37
7.6020002 -0.23100001 -1.082 0.37
7.6009998 -0.207 -1.082 0.38
7.6090002 -0.184 -1.0829999 0.37
7.6059999 -0.17200001 -1.0829999 0.37
7.6040001 -0.148 -1.082 0.36000001
7.599 -0.124 -1.081 0.36000001
7.6030002 -0.1 -1.082 0.36000001
7.6030002 -0.075999998 -1.082 0.37
7.6069999 -0.052000001 -1.0829999 0.36000001
7.6100001 -0.028000001 -1.0829999 0.34
7.6040001 -0.016000001 -1.082 0.36000001
7.5370002 0.012 -1.146 0.38
7.5409999 0.035999998 -1.146 0.41
7.5560002 0.059999999 -1.149 0.38999999
7.546 0.071999997 -1.147 0.38
7.546 0.094999999 -1.147 0.36000001
7.5479999 0.119 -1.148 0.41
7.5549998 0.14300001 -1.149 0.38
7.5570002 0.167 -1.149 0.38999999
7.5599999 0.191 -1.15 0.36000001
7.5640001 0.20299999 -1.151 0.34999999
7.5689998 0.226 -1.152 0.34
7.5700002 0.25 -1.152 0.33000001
7.5770001 0.27399999 -1.153 0.31999999
7.5710001 0.29800001 -1.152 0.36000001
7.585 0.322 -1.155 0.34
7.5939999 0.347 -1.1569999 0.34
7.5970001 0.359 -1.1569999 0.34
7.6020002 0.38299999 -1.158 0.34
7.6209998 0.40799999 -1.1619999 0.34
7.6329999 0.43200001 -1.164 0.34
7.6240001 0.456 -1.163 0.33000001
7.632 0.47999999 -1.164 0.23
7.6409998 0.505 -1.166 0.23999999
7.5949998 -0.838 -1.163 0.20999999
7.598 -0.81400001 -1.163 0.25
7.5910001 -0.78899997 -1.1619999 0.28
7.579 -0.764 -1.159 0.28
7.572 -0.73900002 -1.158 0.31999999
7.5700002 -0.71499997 -1.1569999 0.28999999
7.5640001 -0.70300001 -1.156 0.36000001
7.5560002 -0.67799997 -1.154 0.31
7.5599999 -0.65399998 -1.154 0.36000001
7.5539999 -0.63 -1.153 0.30000001
7.5479999 -0.60500002 -1.152 0.31999999
7.546 -0.58099997 -1.151 0.34999999
7.5500002 -0.55800003 -1.151 0.31999999
7.5430002 -0.54500002 -1.15 0.34
7.5349998 -0.52100003 -1.148 0.36000001
7.5300002 -0.49700001 -1.147 0.33000001
7.5320001 -0.47299999 -1.147 0.36000001
7.5289998 -0.449 -1.147 0.38999999
7.5349998 -0.426 -1.147 0.34999999
7.54 -0.40200001 -1.148 0.38
7.5409999 -0.391 -1.148 0.38
7.5359998 -0.36700001 -1.147 0.41
7.5409999 -0.34299999 -1.148 0.34999999
7.5339999 -0.31900001 -1.146 0.46000001
7.553 -0.296 -1.149 0.30000001
7.5339999 -0.27200001 -1.146 0.51999998
7.5479999 -0.25999999 -1.148 0.31999999
7.539 -0.236 -1.147 0.47
7.5599999 -0.213 -1.15 0.36000001
7.5419998 -0.189 -1.147 0.5
7.5570002 -0.16599999 -1.149 0.37
7.5549998 -0.142 -1.149 0.73000002
7.5440001 -0.118 -1.147 0.46000001
7.54 -0.106 -1.146 0.38999999
7.54 -0.082000002 -1.146 0.43000001
7.5430002 -0.059 -1.147 0.34999999
7.5370002 -0.035 -1.146 0.43000001
7.5409999 -0.011 -1.146 0.40000001
7.566 0.017000001 -1.2180001 0.31
7.5700002 0.028999999 -1.2180001 0.31
7.566 0.052999999 -1.2180001 0.30000001
7.5700002 0.077 -1.2180001 0.30000001
7.5780001 0.101 -1.22 0.30000001
7.5869999 0.125 -1.221 0.30000001
7.5770001 0.148 -1.22 0.28999999
7.5939999 0.17299999 -1.223 0.31999999
7.5939999 0.185 -1.223 0.31
7.5949998 0.20900001 -1.223 0.28999999
7.6020002 0.233 -1.225 0.28999999
7.6090002 0.257 -1.226 0.28999999
7.612 0.28099999 -1.227 0.28
7.6170001 0.30500001 -1.228 0.28999999
7.6160002 0.329 -1.228 0.28999999
7.6139998 0.34099999 -1.227 0.28999999
7.631 0.366 -1.2309999 0.28
7.6350002 0.38999999 -1.232 0.27000001
7.6279998 0.414 -1.2309999 0.27000001
7.6500001 0.43900001 -1.235 0.20999999
7.6669998 0.46399999 -1.238 0.13
7.6550002 0.48800001 -1.2359999 0.2
7.6939998 0.50199997 -1.243 0.2
7.6290002 -0.83600003 -1.237 0.14
7.6279998 -0.81199998 -1.2359999 0.22
7.618 -0.787 -1.234 0.20999999
7.6110001 -0.76200002 -1.232 0.27000001
7.6100001 -0.75 -1.232 0.27000001
7.6069999 -0.72500002 -1.2309999 0.28
7.6030002 -0.70099998 -1.23 0.28999999
7.599 -0.676 -1.229 0.30000001
7.5960002 -0.65200001 -1.228 0.30000001
7.586 -0.62699997 -1.226 0.30000001
7.5799999 -0.60299999 -1.224 0.28999999
7.5749998 -0.58999997 -1.223 0.28999999
7.5749998 -0.56699997 -1.223 0.30000001
7.5749998 -0.54299998 -1.223 0.28999999
7.5630002 -0.51800001 -1.22 0.31
7.5700002 -0.495 -1.221 0.30000001
7.5700002 -0.47099999 -1.221 0.31
7.5650001 -0.44600001 -1.22 0.30000001
7.5609999 -0.42199999 -1.219 0.31999999
7.5609999 -0.41100001 -1.219 0.31
7.559 -0.38699999 -1.2180001 0.30000001
7.5500002 -0.36199999 -1.216 0.31
7.559 -0.33899999 -1.2180001 0.31
7.5599999 -0.315 -1.2180001 0.31999999
7.5609999 -0.292 -1.2180001 0.30000001
7.5570002 -0.28 -1.217 0.31
7.5580001 -0.25600001 -1.217 0.31999999
7.5570002 -0.23199999 -1.217 0.30000001
7.5580001 -0.208 -1.217 0.33000001
7.5500002 -0.184 -1.215 0.33000001
7.559 -0.161 -1.217 0.31
7.5669999 -0.13699999 -1.2180001 0.31
7.5560002 -0.125 -1.216 0.31999999
7.552 -0.101 -1.215 0.31
7.5640001 -0.078000002 -1.217 0.31
7.5599999 -0.054000001 -1.217 0.31
7.5679998 -0.029999999 -1.2180001 0.31999999
7.5679998 -0.0060000001 -1.2180001 0.31999999
7.625 -0.333 -1.353 0.14
7.6149998 -0.28400001 -1.351 0.1
7.6149998 -0.236 -1.351 0.1
7.6269999 -0.153 -1.352 0.11
7.6389999 -0.12899999 -1.355 0.20999999
7.6420002 -0.068999998 -1.355 0.14
