# .PCD v0.7 - Point Cloud Data file format
VERSION 0.7
FIELDS x y z intensity
SIZE 4 4 4 4
TYPE F F F F
COUNT 1 1 1 1
WIDTH 1364
HEIGHT 1
VIEWPOINT 0 0 0 1 0 0 0
POINTS 1364
DATA ascii
-0.163 -2.5829999 -0.55199999 0
-0.153 -2.566 -0.54799998 0
-0.146 -2.5799999 -0.551 0
-0.138 -2.586 -0.55299997 0
-0.13 -2.586 -0.55299997 0
-0.124 -2.6159999 -0.56 0
-0.12 -2.6159999 -0.56 0
-0.112 -2.6259999 -0.56300002 0
-0.104 -2.628 -0.56300002 0
-0.096000001 -2.6400001 -0.56599998 0
-0.088 -2.654 -0.56999999 0
-0.079999998 -2.6559999 -0.56999999 0
-0.071999997 -2.6719999 -0.574 0
-0.068000004 -2.6659999 -0.57300001 0
-0.059999999 -2.6659999 -0.57300001 0
-0.052000001 -2.7049999 -0.583 0
-0.044 -2.698 -0.58099997 0
-0.035 -2.7019999 -0.58200002 0
-0.027000001 -2.7149999 -0.58499998 0
-0.018999999 -2.717 -0.58600003 0
-0.015 -2.7349999 -0.58999997 0
-0.0060000001 -2.7479999 -0.59399998 0
0.003 -2.737 -0.59100002 0
0.011 -2.7460001 -0.59299999 0
0.02 -2.766 -0.59799999 0
0.028000001 -2.7620001 -0.597 0
0.037 -2.777 -0.60100001 0
0.041999999 -2.8039999 -0.60799998 0
0.050999999 -2.8099999 -0.61000001 0
0.059999999 -2.835 -0.61699998 0
0.068999998 -2.8599999 -0.62300003 0
0.078000002 -2.8729999 -0.62699997 0.039999999
0.088 -2.8900001 -0.63099998 0.090000004
0.101 -3.0799999 -0.68099999 0.13
0.107 -3.128 -0.69300002 0.43000001
0.118 -3.1470001 -0.69800001 0.31
0.127 -3.1370001 -0.69599998 0.52999997
0.13699999 -3.1400001 -0.69700003 0.31999999
0.147 -3.1240001 -0.69300002 0.51999998
0.15700001 -3.141 -0.69700003 0.31999999
0.16599999 -3.1210001 -0.69199997 0.54000002
0.17200001 -3.135 -0.69599998 0.33000001
0.182 -3.1359999 -0.69599998 0.55000001
0.192 -3.1429999 -0.69800001 0.31999999
0.20100001 -3.1270001 -0.69400001 0.55000001
0.212 -3.1459999 -0.699 0.33000001
0.22 -3.122 -0.69300002 0.55000001
0.226 -3.1389999 -0.69800001 0.34
0.236 -3.1300001 -0.69599998 0.55000001
0.24699999 -3.145 -0.69999999 0.33000001
0.255 -3.131 -0.69599998 0.52999997
0.266 -3.1400001 -0.699 0.33000001
0.27500001 -3.1270001 -0.69599998 0.54000002
0.285 -3.1340001 -0.69800001 0.33000001
0.28999999 -3.128 -0.69599998 0.56
0.301 -3.142 -0.69999999 0.31999999
0.31 -3.132 -0.69800001 0.55000001
0.32100001 -3.142 -0.70099998 0.34
0.33000001 -3.1340001 -0.699 0.44999999
0.34099999 -3.1400001 -0.70099998 0.34999999
0.34999999 -3.1289999 -0.69800001 0.47999999
0.35600001 -3.142 -0.70200002 0.34
0.36500001 -3.1340001 -0.69999999 0.47
0.375 -3.1359999 -0.70099998 0.36000001
0.38499999 -3.131 -0.69999999 0.46000001
0.39500001 -3.138 -0.70200002 0.34
0.40400001 -3.1270001 -0.699 0.56999999
0.41499999 -3.1370001 -0.70200002 0.34
0.419 -3.1270001 -0.69999999 0.44999999
0.43000001 -3.1329999 -0.70200002 0.38
0.43700001 -3.1110001 -0.69599998 0.60000002
0.40099999 -2.7739999 -0.60799998 0.23
0.41100001 -2.7780001 -0.61000001 0.34999999
0.41999999 -2.777 -0.61000001 0.30000001
0.44999999 -2.9230001 -0.648 0.14
0.484 -3.1229999 -0.70099998 0.52999997
0.49599999 -3.1370001 -0.70499998 0.31999999
0.505 -3.1340001 -0.70499998 0.54000002
0.51599997 -3.1359999 -0.70599997 0.31999999
0.52600002 -3.1340001 -0.70599997 0.55000001
0.53799999 -3.1459999 -0.70899999 0.31999999
0.54400003 -3.1229999 -0.704 0.55000001
0.55199999 -3.1400001 -0.708 0.33000001
0.56 -3.1300001 -0.70599997 0.55000001
0.57300001 -3.1440001 -0.70999998 0.33000001
0.57999998 -3.128 -0.70700002 0.54000002
0.59399998 -3.1459999 -0.71200001 0.31999999
0.60100001 -3.1300001 -0.708 0.54000002
0.61299998 -3.1400001 -0.71100003 0.31999999
0.61500001 -3.1240001 -0.70700002 0.52999997
0.62900001 -3.1429999 -0.713 0.31999999
0.63700002 -3.131 -0.70999998 0.51999998
0.64999998 -3.1459999 -0.71499997 0.31
0.65700001 -3.131 -0.71100003 0.54000002
0.67000002 -3.1440001 -0.71499997 0.31999999
0.67699999 -3.1270001 -0.71100003 0.51999998
0.68400002 -3.135 -0.71399999 0.34
0.69 -3.1159999 -0.70899999 0.63
0.74699998 -3.329 -0.76700002 0
0.67400002 -2.951 -0.66600001 0
0.67699999 -2.9170001 -0.65799999 0
0.68099999 -2.8940001 -0.65200001 0
0.68099999 -2.872 -0.64700001 0
0.68300003 -2.8399999 -0.639 0
0.68699998 -2.819 -0.634 0
0.69199997 -2.7980001 -0.62900001 0
0.69700003 -2.7820001 -0.625 0
0.704 -2.773 -0.62300003 0
0.70700002 -2.7479999 -0.61699998 0
0.70999998 -2.7409999 -0.616 0
0.71600002 -2.727 -0.61299998 0
0.722 -2.7160001 -0.61000001 0
0.72500002 -2.6930001 -0.60399997 0
0.73400003 -2.691 -0.60399997 0
0.73699999 -2.6700001 -0.59899998 0
0.74400002 -2.6600001 -0.597 0
0.74299997 -2.6400001 -0.59200001 0
0.75099999 -2.6359999 -0.59200001 0
0.75800002 -2.632 -0.59100002 0
0.76499999 -2.6240001 -0.58999997 0
0.76800001 -2.6029999 -0.58499998 0
0.76999998 -2.5799999 -0.579 0
0.778 -2.575 -0.579 0
0.78500003 -2.5829999 -0.58099997 0
0.78399998 -2.5510001 -0.57300001 0
0.80400002 -2.5880001 -0.58399999 0
0.81300002 -2.5910001 -0.58499998 0
0.81900001 -2.579 -0.583 0
0.82200003 -2.562 -0.579 0
0.82999998 -2.5569999 -0.57800001 0
0.83399999 -2.556 -0.57800001 0
0.83999997 -2.549 -0.57700002 0
0.852 -2.5580001 -0.57999998 0
0.85600001 -2.5439999 -0.57700002 0
0.86500001 -2.543 -0.57800001 0
0.87699997 -2.553 -0.58099997 0
0.88499999 -2.549 -0.58099997 0
0.88700002 -2.5420001 -0.579 0
0.898 -2.5480001 -0.58200002 0
0.90399998 -2.54 -0.57999998 0
0.91399997 -2.543 -0.58200002 0
0.93000001 -2.562 -0.588 0
0.93199998 -2.5420001 -0.583 0
0.93900001 -2.5369999 -0.583 0
0.94999999 -2.5539999 -0.588 0
0.958 -2.5510001 -0.588 0
1.035 -2.737 -0.63999999 0.090000004
1.17 -3.073 -0.73500001 0.19
1.191 -3.0999999 -0.74299997 0.25999999
1.2079999 -3.115 -0.74800003 0.28999999
1.224 -3.1270001 -0.75300002 0.31
1.227 -3.1199999 -0.75099999 0.40000001
1.242 -3.1300001 -0.755 0.34
1.253 -3.1300001 -0.75599998 0.44999999
1.265 -3.1300001 -0.75700003 0.34999999
1.272 -3.1199999 -0.75599998 0.44999999
1.291 -3.1389999 -0.76200002 0.38
1.288 -3.1159999 -0.75599998 0.46000001
1.303 -3.1259999 -0.75999999 0.38
1.316 -3.1289999 -0.76200002 0.38999999
1.323 -3.118 -0.75999999 0.47
1.341 -3.1329999 -0.76599997 0.28999999
1.351 -3.1289999 -0.76599997 0.47999999
1.362 -3.128 -0.76700002 0.38
1.365 -3.1229999 -0.76599997 0.47999999
1.38 -3.1289999 -0.76899999 0.36000001
1.386 -3.1159999 -0.76599997 0.47999999
1.397 -3.115 -0.76700002 0.43000001
1.409 -3.1140001 -0.76800001 0.40000001
1.418 -3.1099999 -0.76800001 0.31999999
1.411 -3.0669999 -0.75700003 0.16
1.383 -2.994 -0.73699999 0
1.251 -2.6789999 -0.648 0
1.2029999 -2.552 -0.61299998 0
1.21 -2.5469999 -0.61299998 0
1.222 -2.55 -0.61500001 0
1.23 -2.546 -0.61500001 0
1.238 -2.5420001 -0.61500001 0
1.2410001 -2.539 -0.61400002 0
1.25 -2.5369999 -0.61500001 0
1.266 -2.55 -0.62 0
1.271 -2.539 -0.61799997 0
1.2819999 -2.5420001 -0.62 0
1.294 -2.5469999 -0.62199998 0
1.307 -2.5510001 -0.625 0
1.3049999 -2.539 -0.62199998 0
1.3200001 -2.5469999 -0.625 0
1.329 -2.546 -0.62599999 0
1.348 -2.562 -0.63200003 0
1.383 -2.6099999 -0.64700001 0
1.585 -2.9760001 -0.75599998 0.079999998
1.659 -3.0940001 -0.792 0.20999999
1.658 -3.0810001 -0.78899997 0.25999999
1.664 -3.069 -0.787 0.18000001
1.67 -3.0569999 -0.78500003 0.38
1.681 -3.0539999 -0.78600001 0.51999998
1.6900001 -3.0480001 -0.78600001 0.30000001
1.702 -3.046 -0.787 0.31999999
1.709 -3.0380001 -0.78600001 0.31999999
1.714 -3.0350001 -0.78600001 0.33000001
1.73 -3.0409999 -0.78899997 0.30000001
1.7410001 -3.0380001 -0.79000002 0.50999999
1.728 -2.994 -0.778 0.050000001
1.739 -2.99 -0.77899998 0
1.75 -2.9879999 -0.77999997 0
1.702 -2.8929999 -0.75199997 0
1.673 -2.822 -0.73199999 0.090000004
1.66 -2.78 -0.72100002 0.16
1.67 -2.777 -0.722 0.17
1.683 -2.78 -0.72399998 0.039999999
1.739 -2.852 -0.74800003 0.1
1.711 -2.776 -0.727 0.56
1.72 -2.7709999 -0.727 0.34
1.74 -2.7839999 -0.73299998 0.14
1.743 -2.77 -0.73000002 0.27000001
1.7589999 -2.776 -0.73400003 0.40000001
1.7690001 -2.7720001 -0.73500001 0.36000001
1.777 -2.7650001 -0.73400003 0.38999999
1.7869999 -2.7720001 -0.73699999 0.40000001
1.801 -2.7739999 -0.74000001 0.37
1.808 -2.7650001 -0.73900002 0.31
1.816 -2.76 -0.73900002 0.41
1.832 -2.7650001 -0.74199998 0.34999999
1.841 -2.76 -0.74199998 0.41
1.8559999 -2.763 -0.745 0.37
1.863 -2.7639999 -0.74599999 0.38999999
1.875 -2.763 -0.74800003 0.40000001
1.837 -2.688 -0.72600001 0.34999999
1.897 -2.7590001 -0.75 0.090000004
1.9069999 -2.7550001 -0.75099999 0.090000004
1.923 -2.76 -0.75400001 0.090000004
1.9349999 -2.7579999 -0.75599998 0.079999998
1.944 -2.7620001 -0.75800002 0.090000004
1.947 -2.7479999 -0.755 0
1.927 -2.7 -0.74199998 0
1.939 -2.6989999 -0.74400002 0.059999999
1.992 -2.756 -0.764 0.079999998
2.0009999 -2.75 -0.764 0.18000001
2.0179999 -2.756 -0.76800001 0.19
2.033 -2.767 -0.77200001 0.18000001
2.039 -2.757 -0.77100003 0.17
2.0510001 -2.756 -0.773 0.090000004
2.0829999 -2.78 -0.78299999 0
3.1300001 -4.1719999 -1.237 0.050000001
3.155 -4.178 -1.242 0.14
3.165 -4.178 -1.243 0.23999999
3.184 -4.1760001 -1.2460001 0.25
3.2119999 -4.1859999 -1.252 0.25
3.2590001 -4.2199998 -1.267 0.19
4.2529998 -5.4840002 -1.686 0.17
4.2680001 -5.4679999 -1.6849999 0.23
3.312 -4.2059999 -1.272 0.20999999
3.2969999 -4.1729999 -1.263 0.30000001
3.309 -4.1609998 -1.263 0.30000001
3.3399999 -4.1739998 -1.27 0.23999999
3.3570001 -4.1680002 -1.272 0
3.3989999 -4.1929998 -1.284 0.11
4.3899999 -5.3930001 -1.689 0.18000001
2.369 -2.8729999 -0.84799999 0
3.1700001 -3.8329999 -1.174 0
4.4250002 -5.3499999 -1.686 0.059999999
4.4510002 -5.348 -1.6900001 0.18000001
4.4580002 -5.322 -1.686 0.12
4.4749999 -5.3080001 -1.686 0.2
4.4819999 -5.2820001 -1.682 0.11
3.296 -3.849 -1.198 0.039999999
3.283 -3.809 -1.188 0.17
3.2479999 -3.757 -1.1720001 0.050000001
3.2460001 -3.73 -1.166 0.16
3.24 -3.7 -1.159 0.050000001
3.2379999 -3.6730001 -1.153 0.07
2.2839999 -2.563 -0.77200001 0.14
2.2909999 -2.5550001 -0.77200001 0.20999999
2.2909999 -2.5469999 -0.76999998 0.23
2.3080001 -2.55 -0.77399999 0.25999999
2.3269999 -2.5539999 -0.778 0.27000001
2.3369999 -2.549 -0.77899998 0.27000001
2.352 -2.549 -0.78100002 0.28999999
2.3670001 -2.55 -0.78399998 0.27000001
2.381 -2.549 -0.78600001 0.28
2.3940001 -2.5550001 -0.79000002 0.28
2.408 -2.5539999 -0.792 0.27000001
2.4260001 -2.5569999 -0.796 0.27000001
2.434 -2.549 -0.796 0.27000001
2.448 -2.549 -0.79900002 0.27000001
2.4619999 -2.546 -0.801 0.27000001
2.4760001 -2.546 -0.80299997 0.25999999
2.507 -2.5699999 -0.81300002 0.23999999
2.513 -2.559 -0.81199998 0.18000001
2.527 -2.5580001 -0.815 0.28999999
2.5380001 -2.553 -0.81599998 0.25
2.549 -2.5480001 -0.81699997 0.25999999
2.575 -2.5569999 -0.82300001 0.23999999
2.585 -2.552 -0.824 0.18000001
2.598 -2.556 -0.82700002 0.28999999
2.6110001 -2.5539999 -0.829 0.25
2.638 -2.5639999 -0.83600003 0.2
2.641 -2.5510001 -0.83399999 0.27000001
2.6589999 -2.552 -0.838 0.25
2.678 -2.5539999 -0.84200001 0.2
2.694 -2.5539999 -0.84500003 0.27000001
2.711 -2.562 -0.84899998 0.23999999
2.733 -2.566 -0.85399997 0.22
2.7379999 -2.5550001 -0.85299999 0.25
2.76 -2.5599999 -0.85900003 0.22
2.7869999 -2.5680001 -0.86500001 0
5.0669999 -4.6550002 -1.67 0.02
2.8050001 -2.569 -0.86900002 0
5.1160002 -4.6700001 -1.682 0.039999999
5.1269999 -4.652 -1.681 0.079999998
5.151 -4.6430001 -1.684 0.079999998
5.1669998 -4.6279998 -1.6849999 0.090000004
5.1729999 -4.6040001 -1.682 0.090000004
5.1869998 -4.5879998 -1.682 0.090000004
5.197 -4.5819998 -1.683 0.090000004
5.2069998 -4.5619998 -1.681 0.079999998
5.217 -4.5419998 -1.6799999 0.079999998
5.244 -4.5370002 -1.684 0.16
5.2480001 -4.5120001 -1.681 0.039999999
5.2540002 -4.4879999 -1.678 0.12
3.882 -3.286 -1.2029999 0.17
3.911 -3.3 -1.211 0.25
3.901 -3.27 -1.204 0.47
3.921 -3.267 -1.207 0.38
3.915 -3.2409999 -1.202 0.43000001
3.921 -3.2249999 -1.2 0.47999999
3.835 -3.1340001 -1.168 0.07
3.928 -3.1889999 -1.196 0.12
5.3600001 -4.3509998 -1.676 0.16
5.382 -4.3400002 -1.679 0.039999999
5.3889999 -4.3179998 -1.677 0.17
5.4070001 -4.3049998 -1.678 0.19
5.4180002 -4.2849998 -1.677 0.039999999
5.428 -4.2659998 -1.676 0.17
5.4489999 -4.2550001 -1.679 0.19
5.454 -4.2449999 -1.678 0.18000001
5.4749999 -4.2340002 -1.681 0.090000004
5.4749999 -4.2059999 -1.676 0.18000001
5.4819999 -4.184 -1.674 0.050000001
5.4990001 -4.1700001 -1.676 0.18000001
5.5110002 -4.152 -1.675 0.18000001
5.533 -4.1409998 -1.678 0.039999999
5.527 -4.1230001 -1.674 0.16
5.5450001 -4.1090002 -1.676 0.050000001
5.5689998 -4.0999999 -1.679 0.16
5.572 -4.0760002 -1.676 0.050000001
5.5869999 -4.059 -1.677 0.17
5.599 -4.0419998 -1.677 0.050000001
5.598 -4.027 -1.674 0.16
5.6059999 -4.006 -1.673 0.050000001
4.1090002 -2.908 -1.189 0.16
4.1589999 -2.925 -1.202 0.2
4.1300001 -2.885 -1.1900001 0.17
4.2090001 -2.921 -1.212 0.5
4.1279998 -2.8440001 -1.184 0.2
4.1750002 -2.868 -1.197 0.51999998
4.112 -2.8050001 -1.175 0.28999999
4.1069999 -2.7820001 -1.17 0.31999999
4.0929999 -2.7539999 -1.163 0.34
4.0939999 -2.7360001 -1.16 0.27000001
4.086 -2.7119999 -1.155 0.31999999
4.177 -2.7539999 -1.181 0.27000001
4.2129998 -2.7690001 -1.191 0.07
5.7690001 -3.777 -1.674 0.029999999
5.7750001 -3.7550001 -1.6720001 0.12
4.1389999 -2.664 -1.16 0.12
4.1370001 -2.6440001 -1.1569999 0.16
4.1240001 -2.618 -1.15 0
4.152 -2.6170001 -1.156 0.07
4.1729999 -2.6210001 -1.161 0.18000001
4.1370001 -2.5799999 -1.148 0.23
4.1550002 -2.573 -1.151 0.27000001
4.1890001 -2.5769999 -1.159 0.19
4.21 -2.572 -1.163 0.12
5.2519999 -3.1930001 -1.479 0.19
5.2410002 -3.164 -1.472 0.25999999
5.2529998 -3.1589999 -1.474 0.23
5.2639999 -3.1440001 -1.475 0.22
5.2490001 -3.112 -1.467 0.1
5.2410002 -3.085 -1.462 0.2
5.2490001 -3.0669999 -1.461 0.18000001
5.256 -3.05 -1.461 0.25999999
5.2410002 -3.0190001 -1.4529999 0.20999999
5.2509999 -3.0139999 -1.455 0.23
5.2550001 -2.994 -1.4529999 0.23
5.2389998 -2.9630001 -1.446 0.22
5.2519999 -2.9489999 -1.447 0.20999999
5.256 -2.9289999 -1.4450001 0.23999999
5.257 -2.908 -1.443 0.16
5.2690001 -2.8929999 -1.444 0.28
5.2540002 -2.8740001 -1.438 0.2
5.2610002 -2.8559999 -1.437 0.11
5.2509999 -2.8299999 -1.432 0.18000001
5.2550001 -2.8099999 -1.4299999 0.27000001
5.2670002 -2.796 -1.431 0.23
5.2709999 -2.776 -1.4299999 0.30000001
5.2600002 -2.76 -1.425 0.23
5.2509999 -2.734 -1.42 0.25999999
5.2680001 -2.7219999 -1.423 0.2
5.2579999 -2.6960001 -1.4170001 0.25
5.256 -2.674 -1.414 0.25
5.2589998 -2.655 -1.4119999 0.20999999
5.2519999 -2.631 -1.408 0.25
5.256 -2.622 -1.408 0.2
5.256 -2.602 -1.405 0.23
5.2600002 -2.5829999 -1.404 0.19
5.256 -2.5610001 -1.401 0.20999999
5.2470002 -2.536 -1.396 0.059999999
5.3699999 -2.575 -1.429 0.029999999
5.4530001 -2.5940001 -1.451 0
5.434 -2.575 -1.444 0
5.46 -2.566 -1.449 0
5.4850001 -2.5569999 -1.454 0
5.513 -2.549 -1.46 0
5.54 -2.54 -1.465 0
5.6059999 -2.55 -1.482 0
5.6160002 -2.533 -1.483 0
5.658 -2.5420001 -1.494 0.029999999
5.7140002 -2.5450001 -1.507 0.07
5.7519999 -2.5409999 -1.516 0.039999999
5.7940001 -2.5380001 -1.525 0
5.8670001 -2.5480001 -1.544 0
5.8979998 -2.54 -1.551 0
5.9219999 -2.5280001 -1.5549999 0
5.9790001 -2.5420001 -1.5700001 0.029999999
6.1030002 -2.572 -1.603 0.039999999
6.3270001 -2.6440001 -1.664 0.17
6.3319998 -2.6229999 -1.663 0.050000001
6.3379998 -2.602 -1.663 0.18000001
6.3590002 -2.5869999 -1.666 0.2
6.3509998 -2.5610001 -1.6619999 0.1
6.3600001 -2.553 -1.663 0.18000001
6.3730001 -2.5350001 -1.665 0.050000001
6.3889999 -2.5179999 -1.6670001 0.17
6.3930001 -2.497 -1.666 0.11
6.4169998 -2.483 -1.67 0.18000001
6.3990002 -2.4530001 -1.663 0.22
6.4229999 -2.4389999 -1.668 0.16
6.4130001 -2.4230001 -1.664 0.23
6.4200001 -2.4030001 -1.664 0.18000001
6.4260001 -2.382 -1.663 0.23
6.4349999 -2.3629999 -1.664 0.19
6.448 -2.345 -1.665 0.12
6.454 -2.3239999 -1.665 0.18000001
6.461 -2.303 -1.665 0.23
6.4699998 -2.2950001 -1.666 0.18000001
6.4640002 -2.27 -1.663 0.23
6.4790001 -2.253 -1.665 0.17
6.48 -2.23 -1.663 0.23999999
6.4840002 -2.2090001 -1.6619999 0.19
6.4959998 -2.1900001 -1.664 0.23
6.5089998 -2.1830001 -1.666 0.19
6.5040002 -2.1589999 -1.663 0.23
6.5110002 -2.138 -1.663 0.18000001
6.52 -2.119 -1.664 0.23999999
6.5229998 -2.0969999 -1.663 0.18000001
6.527 -2.076 -1.6619999 0.23999999
6.5380001 -2.056 -1.663 0.18000001
6.5409999 -2.046 -1.663 0.23
6.5430002 -2.0239999 -1.6619999 0.18000001
6.5479999 -2.003 -1.6619999 0.23999999
6.5450001 -1.98 -1.659 0.18000001
6.5510001 -1.959 -1.659 0.23999999
6.5780001 -1.9450001 -1.665 0.2
6.5760002 -1.9220001 -1.663 0.12
6.5679998 -1.908 -1.659 0.20999999
6.585 -1.891 -1.663 0.17
6.5910001 -1.87 -1.663 0.25999999
6.5970001 -1.85 -1.663 0.19
6.5970001 -1.827 -1.661 0.23
6.6199999 -1.811 -1.666 0.18000001
6.6160002 -1.788 -1.663 0.23999999
6.6170001 -1.777 -1.663 0.18000001
6.6209998 -1.756 -1.6619999 0.23999999
6.619 -1.733 -1.66 0.18000001
6.6240001 -1.712 -1.66 0.23
6.6539998 -1.698 -1.6670001 0.18000001
6.631 -1.669 -1.659 0.25
6.638 -1.649 -1.659 0.2
6.6560001 -1.642 -1.664 0.12
6.631 -1.614 -1.655 0.20999999
6.6659999 -1.601 -1.664 0.11
6.6609998 -1.577 -1.661 0.2
6.6529999 -1.553 -1.6569999 0.11
6.6560001 -1.5319999 -1.6569999 0.19
6.678 -1.515 -1.6619999 0.1
6.6880002 -1.506 -1.664 0.18000001
6.6719999 -1.48 -1.658 0.050000001
6.6859999 -1.462 -1.66 0.17
6.6729999 -1.437 -1.656 0.11
6.6929998 -1.419 -1.66 0.18000001
6.7069998 -1.4 -1.663 0.11
6.6810002 -1.373 -1.654 0.18000001
6.6939998 -1.365 -1.6569999 0.11
6.7249999 -1.349 -1.665 0.16
6.7069998 -1.323 -1.658 0.050000001
6.7199998 -1.304 -1.661 0.16
6.7150002 -1.281 -1.658 0.050000001
6.7259998 -1.261 -1.66 0.18000001
6.711 -1.248 -1.656 0.050000001
6.7490001 -1.233 -1.665 0.16
6.7270002 -1.207 -1.658 0.050000001
6.7550001 -1.1900001 -1.665 0.16
6.7550001 -1.168 -1.664 0.050000001
6.743 -1.1440001 -1.659 0.16
6.7509999 -1.124 -1.66 0.18000001
6.7620001 -1.115 -1.663 0.17
6.7620001 -1.0930001 -1.6619999 0.18000001
6.7709999 -1.073 -1.664 0.18000001
6.77 -1.051 -1.663 0.17
6.7550001 -1.026 -1.6569999 0.039999999
6.7620001 -1.006 -1.658 0.039999999
6.7820001 -0.98699999 -1.663 0.11
6.77 -0.97500002 -1.659 0.17
6.7810001 -0.954 -1.6619999 0.17
6.7930002 -0.93400002 -1.664 0.17
6.777 -0.91000003 -1.659 0.039999999
6.789 -0.88999999 -1.6619999 0.079999998
6.783 -0.86799997 -1.659 0.039999999
6.7779999 -0.84600002 -1.6569999 0.07
6.7849998 -0.83600003 -1.658 0.16
6.7950001 -0.815 -1.66 0.16
6.7820001 -0.792 -1.656 0.17
6.7849998 -0.77100003 -1.656 0.16
6.8039999 -0.75099999 -1.661 0.17
6.7870002 -0.72799999 -1.656 0.16
6.803 -0.708 -1.659 0.17
6.8000002 -0.69700003 -1.658 0.16
6.7950001 -0.67500001 -1.656 0.17
6.8010001 -0.65399998 -1.6569999 0.16
6.803 -0.63200003 -1.6569999 0.16
6.8070002 -0.611 -1.658 0.18000001
6.809 -0.58999997 -1.658 0.17
6.8239999 -0.56999999 -1.6619999 0.17
6.8169999 -0.55800003 -1.659 0.039999999
6.8130002 -0.53600001 -1.658 0.15000001
6.8179998 -0.51499999 -1.659 0.050000001
6.8179998 -0.49399999 -1.658 0.16
6.8099999 -0.472 -1.656 0.050000001
6.8169999 -0.45100001 -1.6569999 0.17
6.809 -0.428 -1.655 0.050000001
6.8150001 -0.41800001 -1.656 0.17
6.8260002 -0.39700001 -1.659 0.050000001
6.835 -0.37599999 -1.661 0.17
6.8210001 -0.354 -1.6569999 0.19
6.8390002 -0.333 -1.6619999 0.1
6.8460002 -0.31200001 -1.663 0.17
6.8330002 -0.301 -1.659 0.050000001
6.842 -0.28 -1.6619999 0.18000001
6.8309999 -0.25799999 -1.658 0.050000001
6.8449998 -0.237 -1.6619999 0.16
6.8340001 -0.215 -1.659 0.050000001
6.835 -0.193 -1.659 0.18000001
6.8429999 -0.17200001 -1.661 0.2
6.8299999 -0.161 -1.6569999 0.090000004
6.835 -0.14 -1.658 0.18000001
6.8270001 -0.118 -1.656 0.050000001
6.8449998 -0.097000003 -1.661 0.17
6.8429999 -0.075000003 -1.66 0.050000001
6.842 -0.054000001 -1.66 0.16
6.8280001 -0.032000002 -1.656 0.039999999
6.836 -0.022 -1.658 0.16
6.8280001 -0 -1.656 0.050000001
6.5840001 0.017000001 -1.666 0.19
6.5869999 0.037999999 -1.6670001 0.2
6.599 0.059 -1.67 0.1
6.579 0.068999998 -1.665 0.18000001
6.5770001 0.090000004 -1.664 0.050000001
6.6040001 0.111 -1.6720001 0.17
6.586 0.131 -1.6670001 0.050000001
6.5879998 0.152 -1.6670001 0.17
6.599 0.17299999 -1.671 0.2
6.5830002 0.193 -1.666 0.039999999
6.6040001 0.204 -1.6720001 0.16
6.5890002 0.22499999 -1.668 0.18000001
6.5809999 0.245 -1.666 0.17
6.5819998 0.266 -1.6670001 0.18000001
6.5910001 0.287 -1.669 0.17
6.5799999 0.30700001 -1.6670001 0.17
6.5910001 0.32800001 -1.67 0.17
6.5869999 0.33899999 -1.669 0.18000001
6.572 0.35800001 -1.665 0.039999999
6.5689998 0.37900001 -1.665 0.15000001
6.579 0.40000001 -1.668 0.18000001
6.5799999 0.421 -1.668 0.17
6.5840001 0.442 -1.67 0.16
6.5749998 0.46200001 -1.668 0.17
6.5710001 0.472 -1.6670001 0.17
6.5650001 0.493 -1.666 0.18000001
6.5770001 0.514 -1.669 0.18000001
6.5640001 0.53399998 -1.666 0.17
6.5739999 0.55599999 -1.669 0.16
6.5760002 0.57700002 -1.671 0.18000001
6.5679998 0.597 -1.669 0.18000001
6.5630002 0.60699999 -1.668 0.18000001
6.5609999 0.62699997 -1.668 0.17
6.559 0.648 -1.668 0.18000001
6.552 0.66799998 -1.666 0.17
6.5570002 0.68900001 -1.668 0.16
6.5419998 0.70899999 -1.665 0.18000001
6.5489998 0.73000002 -1.6670001 0.17
6.5500002 0.741 -1.668 0.18000001
6.5279999 0.759 -1.663 0.039999999
6.5469999 0.78200001 -1.668 0.16
6.533 0.801 -1.665 0.050000001
6.5300002 0.82200003 -1.665 0.17
6.5159998 0.84100002 -1.6619999 0.050000001
6.5289998 0.86299998 -1.666 0.18000001
6.5159998 0.87199998 -1.663 0.050000001
6.5190001 0.89300001 -1.665 0.17
6.526 0.91500002 -1.6670001 0.2
6.5149999 0.93400002 -1.665 0.1
6.5079999 0.954 -1.664 0.19
6.5170002 0.97600001 -1.6670001 0.11
6.5209999 0.99800003 -1.669 0.18000001
6.506 1.006 -1.666 0.22
6.5180001 1.029 -1.67 0.19
6.5019999 1.0470001 -1.666 0.22
6.5120001 1.0700001 -1.67 0.2
6.4970002 1.089 -1.6670001 0.20999999
6.4949999 1.109 -1.6670001 0.17
6.4879999 1.1289999 -1.666 0.23999999
6.494 1.141 -1.668 0.19
6.4829998 1.16 -1.666 0.25
6.4850001 1.181 -1.668 0.18000001
6.4850001 1.202 -1.669 0.23999999
6.4809999 1.222 -1.669 0.19
6.4749999 1.242 -1.668 0.25
6.4809999 1.2539999 -1.671 0.19
6.4640002 1.272 -1.6670001 0.23999999
6.4629998 1.293 -1.668 0.19
6.461 1.314 -1.668 0.25
6.4569998 1.334 -1.668 0.23
6.4619999 1.3559999 -1.671 0.2
6.454 1.376 -1.67 0.25
6.4369998 1.382 -1.666 0.25
6.4359999 1.404 -1.6670001 0.20999999
6.434 1.424 -1.6670001 0.23999999
6.4219999 1.443 -1.665 0.23
6.4229999 1.464 -1.6670001 0.2
6.4260001 1.4859999 -1.669 0.25999999
6.4229999 1.507 -1.669 0.23999999
6.415 1.515 -1.668 0.19
6.4159999 1.5369999 -1.669 0.25999999
6.4029999 1.5549999 -1.6670001 0.23
6.402 1.576 -1.668 0.18000001
6.3899999 1.595 -1.666 0.27000001
6.3850002 1.615 -1.666 0.23999999
6.3740001 1.633 -1.665 0.19
6.3860002 1.647 -1.669 0.25999999
6.3850002 1.668 -1.67 0.20999999
6.3610001 1.683 -1.665 0.050000001
6.3610001 1.705 -1.666 0.079999998
6.3740001 1.73 -1.6720001 0.14
6.348 1.744 -1.666 0.23999999
6.3390002 1.763 -1.665 0.18000001
6.3249998 1.77 -1.6619999 0.23
6.3249998 1.791 -1.663 0.19
6.3070002 1.807 -1.66 0.25
6.3249998 1.834 -1.666 0.2
6.2880001 1.845 -1.6569999 0.23
6.3039999 1.8710001 -1.664 0.19
6.289 1.888 -1.661 0.23
6.2930002 1.9 -1.663 0.19
6.2839999 1.919 -1.6619999 0.12
6.2680001 1.936 -1.66 0.20999999
6.2659998 1.957 -1.661 0.11
6.2620001 1.977 -1.661 0.2
6.25 1.995 -1.66 0.11
6.2379999 2.0020001 -1.6569999 0.18000001
6.2399998 2.0239999 -1.66 0.11
6.2319999 2.043 -1.659 0.19
6.2259998 2.063 -1.659 0.11
6.2340002 2.0869999 -1.663 0.18000001
6.2129998 2.102 -1.659 0.20999999
6.2059999 2.1210001 -1.659 0.1
6.2049999 2.132 -1.66 0.19
6.198 2.151 -1.66 0.11
6.2020001 2.174 -1.663 0.16
6.1859999 2.191 -1.66 0.22
6.1700001 2.207 -1.6569999 0.1
6.1739998 2.23 -1.661 0.19
6.165 2.2490001 -1.66 0.11
6.1490002 2.2539999 -1.656 0.19
6.138 2.2720001 -1.655 0.050000001
6.1350002 2.2920001 -1.656 0.17
6.1350002 2.3139999 -1.658 0.2
6.1290002 2.3340001 -1.659 0.1
6.105 2.3469999 -1.654 0.19
6.112 2.372 -1.658 0.2
6.0960002 2.3770001 -1.655 0.1
6.099 2.4000001 -1.658 0.18000001
6.085 2.4170001 -1.656 0.050000001
6.0749998 2.4349999 -1.655 0.16
6.0689998 2.4549999 -1.656 0.050000001
6.0669999 2.4760001 -1.6569999 0.17
6.0479999 2.4909999 -1.654 0.050000001
6.046 2.5009999 -1.655 0.17
6.046 2.523 -1.6569999 0.2
6.0359998 2.5409999 -1.656 0.090000004
6.033 2.562 -1.658 0.18000001
6.02 2.579 -1.656 0.19
6.013 2.599 -1.6569999 0.1
6 2.615 -1.655 0.18000001
5.9920001 2.6229999 -1.654 0.2
5.993 2.6459999 -1.6569999 0.090000004
5.9829998 2.664 -1.656 0.15000001
5.9619999 2.677 -1.653 0.050000001
5.961 2.6989999 -1.655 0.18000001
5.9590001 2.721 -1.6569999 0.2
5.9439998 2.7360001 -1.655 0.1
5.9460001 2.7490001 -1.6569999 0.17
5.9380002 2.7679999 -1.6569999 0.20999999
5.915 2.78 -1.653 0.1
5.9029999 2.796 -1.652 0.18000001
5.908 2.822 -1.656 0.2
5.8920002 2.8369999 -1.654 0.1
5.8870001 2.846 -1.654 0.18000001
5.8769999 2.8640001 -1.653 0.2
5.8660002 2.881 -1.653 0.1
5.8639998 2.9030001 -1.655 0.18000001
5.8439999 2.9159999 -1.652 0.20999999
5.842 2.938 -1.654 0.1
5.8400002 2.96 -1.656 0.18000001
5.8249998 2.9760001 -1.654 0.22
5.8200002 2.9849999 -1.654 0.16
5.8060002 3.0009999 -1.653 0.23999999
5.8080001 3.0250001 -1.656 0.19
5.7849998 3.036 -1.652 0.12
5.7810001 3.0569999 -1.654 0.18000001
5.7690001 3.0739999 -1.653 0.23
5.7610002 3.0929999 -1.654 0.17
5.75 3.099 -1.652 0.23999999
5.7420001 3.118 -1.652 0.16
5.7319999 3.1359999 -1.652 0.27000001
5.7340002 3.1600001 -1.656 0.19
5.7090001 3.1700001 -1.651 0.23
5.7069998 3.1919999 -1.654 0.18000001
5.6900001 3.2060001 -1.652 0.23
5.6849999 3.2149999 -1.652 0.18000001
5.6750002 3.233 -1.652 0.25
5.6750002 3.257 -1.655 0.18000001
5.6599998 3.2720001 -1.653 0.25
5.6490002 3.289 -1.653 0.17
5.6339998 3.3039999 -1.652 0.25
5.6360002 3.3169999 -1.654 0.18000001
5.618 3.3310001 -1.652 0.23999999
5.6160002 3.3529999 -1.654 0.2
5.5929999 3.3629999 -1.65 0.23999999
5.5869999 3.3840001 -1.652 0.18000001
5.5760002 3.401 -1.652 0.23999999
5.5570002 3.4130001 -1.649 0.18000001
5.5630002 3.4289999 -1.653 0.23
5.5539999 3.448 -1.653 0.19
5.5300002 3.457 -1.649 0.23999999
5.5440001 3.49 -1.6569999 0.19
5.5149999 3.4960001 -1.651 0.23
5.5089998 3.516 -1.653 0.18000001
5.5009999 3.536 -1.654 0.23
5.4990001 3.546 -1.655 0.19
5.4759998 3.556 -1.651 0.25
5.4699998 3.5769999 -1.653 0.19
5.4619999 3.596 -1.654 0.23
5.4460001 3.6099999 -1.652 0.2
5.4439998 3.6329999 -1.655 0.22
5.4289999 3.648 -1.654 0.17
5.4169998 3.6530001 -1.652 0.23999999
5.414 3.675 -1.655 0.19
5.3959999 3.688 -1.653 0.12
5.3759999 3.6989999 -1.65 0.20999999
5.3759999 3.724 -1.654 0.11
5.369 3.744 -1.655 0.18000001
5.3520002 3.757 -1.654 0.11
5.3559999 3.7720001 -1.6569999 0.18000001
5.336 3.7839999 -1.654 0.20999999
5.322 3.799 -1.654 0.1
5.309 3.8150001 -1.653 0.18000001
5.3049998 3.8369999 -1.656 0.2
5.2789998 3.8440001 -1.651 0.1
5.2849998 3.8740001 -1.6569999 0.18000001
5.2740002 3.8789999 -1.656 0.2
5.257 3.892 -1.654 0.1
5.2410002 3.905 -1.653 0.17
5.2389998 3.9289999 -1.656 0.20999999
5.224 3.944 -1.655 0.1
5.2140002 3.9619999 -1.656 0.18000001
5.2129998 3.974 -1.658 0.20999999
5.1890001 3.9820001 -1.654 0.18000001
5.1849999 4.0040002 -1.6569999 0.090000004
5.1799998 4.026 -1.66 0.18000001
5.1589999 4.0370002 -1.6569999 0.2
5.1500001 4.0549998 -1.658 0.1
5.1500001 4.0819998 -1.663 0.16
5.132 4.0809999 -1.658 0.20999999
5.1269999 4.1030002 -1.661 0.1
5.1059999 4.1129999 -1.658 0.18000001
5.0869999 4.1240001 -1.656 0.050000001
5.092 4.1550002 -1.663 0.17
5.0570002 4.152 -1.655 0.050000001
5.0419998 4.1669998 -1.654 0.17
5.0430002 4.1810002 -1.6569999 0.050000001
5.0430002 4.2080002 -1.6619999 0.17
5.0240002 4.2189999 -1.66 0.2
5.0139999 4.237 -1.661 0.090000004
4.987 4.2420001 -1.656 0
4.967 4.2509999 -1.653 0
2.9809999 2.6630001 -0.96399999 0
2.977 2.6670001 -0.96399999 0
2.9519999 2.661 -0.95700002 0
2.9289999 2.6570001 -0.95200002 0
2.928 2.6730001 -0.95499998 0
2.881 2.6470001 -0.94099998 0
2.8759999 2.658 -0.94199997 0
2.8729999 2.6730001 -0.94400001 0
2.852 2.661 -0.93699998 0
2.8410001 2.6670001 -0.93599999 0
2.8670001 2.71 -0.94999999 0
2.8710001 2.7309999 -0.954 0
2.8699999 2.7460001 -0.95700002 0
2.8429999 2.7379999 -0.94999999 0
2.823 2.7360001 -0.94599998 0
2.777 2.698 -0.93000001 0.050000001
2.7460001 2.6849999 -0.921 0.090000004
2.6989999 2.6730001 -0.91000003 0.28
2.6889999 2.6800001 -0.90899998 0.23999999
2.665 2.6719999 -0.903 0.25
2.642 2.665 -0.89700001 0.28
2.635 2.6659999 -0.89600003 0.27000001
2.618 2.6659999 -0.89300001 0.27000001
2.592 2.6559999 -0.88599998 0.27000001
2.5829999 2.6630001 -0.88599998 0.25999999
2.5569999 2.6530001 -0.87900001 0.28
2.5469999 2.6589999 -0.87800002 0.25
2.523 2.642 -0.87 0.15000001
2.51 2.645 -0.86799997 0.31
2.503 2.654 -0.86900002 0.16
2.497 2.665 -0.87 0.25
2.4849999 2.668 -0.86799997 0.23
2.441 2.638 -0.85399997 0.25999999
2.438 2.651 -0.85600001 0.27000001
2.4349999 2.6559999 -0.85699999 0.25
2.4260001 2.6619999 -0.85600001 0.27000001
2.404 2.6559999 -0.85100001 0.28999999
2.404 2.6719999 -0.85399997 0.28
2.372 2.6530001 -0.84500003 0.28999999
2.355 2.6500001 -0.84100002 0.28999999
2.3529999 2.665 -0.84399998 0.28999999
2.325 2.641 -0.83399999 0.28999999
2.3199999 2.6530001 -0.83499998 0.27000001
2.312 2.6600001 -0.83499998 0.31999999
2.2969999 2.6600001 -0.833 0.31
2.283 2.6600001 -0.82999998 0.30000001
2.2780001 2.671 -0.83200002 0.31
2.2550001 2.661 -0.82499999 0.28
2.243 2.655 -0.82200003 0.28999999
2.2320001 2.6589999 -0.82099998 0.31999999
2.22 2.6619999 -0.81999999 0.28999999
2.2160001 2.6730001 -0.82099998 0.31
2.201 2.6730001 -0.81900001 0.30000001
2.194 2.681 -0.81900001 0.28
2.178 2.6789999 -0.81599998 0.28999999
2.1630001 2.6689999 -0.81099999 0.30000001
2.1470001 2.665 -0.80800003 0.28999999
2.135 2.6670001 -0.80599999 0.30000001
2.1259999 2.674 -0.80599999 0.28999999
2.1129999 2.675 -0.80400002 0.28999999
2.0940001 2.668 -0.79900002 0.28999999
2.0929999 2.6830001 -0.80199999 0.28999999
2.076 2.6700001 -0.79699999 0.28
2.0610001 2.6689999 -0.79400003 0.28999999
2.0469999 2.6670001 -0.79100001 0.28999999
2.0309999 2.6630001 -0.78799999 0.28999999
2.026 2.674 -0.78899997 0.28999999
2.0090001 2.6689999 -0.78600001 0.28999999
1.9960001 2.6689999 -0.78299999 0.28
1.987 2.6659999 -0.78100002 0.28999999
1.972 2.6630001 -0.778 0.28
1.962 2.6659999 -0.77700001 0.28999999
1.951 2.6689999 -0.77600002 0.28
1.929 2.6570001 -0.76999998 0.28999999
1.92 2.661 -0.76899999 0.30000001
1.9170001 2.675 -0.77200001 0.28999999
1.899 2.6589999 -0.76599997 0.28999999
1.89 2.6630001 -0.76499999 0.28
1.877 2.6630001 -0.76300001 0.30000001
1.869 2.6689999 -0.76300001 0.28999999
1.853 2.664 -0.759 0.28999999
1.8430001 2.668 -0.759 0.28999999
1.832 2.6689999 -0.75700003 0.28999999
1.824 2.6670001 -0.75599998 0.28
1.811 2.6659999 -0.75400001 0.28999999
1.801 2.6689999 -0.75199997 0.28
1.786 2.665 -0.74900001 0.28
1.773 2.6619999 -0.74699998 0.28
1.7589999 2.6600001 -0.74400002 0.28
1.7539999 2.6700001 -0.74599999 0.28
1.7410001 2.6600001 -0.741 0.28
1.724 2.652 -0.73699999 0.28
1.7180001 2.661 -0.73799998 0.28
1.704 2.6559999 -0.73500001 0.28999999
1.693 2.658 -0.73400003 0.27000001
1.678 2.652 -0.73000002 0.28999999
1.663 2.648 -0.727 0.28999999
1.658 2.6489999 -0.727 0.28999999
1.647 2.6489999 -0.72500002 0.28999999
1.637 2.652 -0.72500002 0.27000001
1.627 2.654 -0.72399998 0.28
1.608 2.641 -0.71799999 0.27000001
1.596 2.6389999 -0.71600002 0.25
1.589 2.648 -0.71700001 0.27000001
1.576 2.635 -0.71200001 0.25999999
1.567 2.6389999 -0.71200001 0.27000001
1.558 2.642 -0.71100003 0.25999999
1.545 2.638 -0.708 0.27000001
1.533 2.6359999 -0.70599997 0.27000001
1.524 2.641 -0.70599997 0.25999999
1.508 2.6329999 -0.70200002 0.27000001
1.507 2.6400001 -0.704 0.27000001
1.493 2.635 -0.70099998 0.27000001
1.487 2.6429999 -0.70200002 0.25999999
1.475 2.641 -0.69999999 0.27000001
1.455 2.625 -0.69300002 0.28
1.448 2.631 -0.69400001 0.28
1.4349999 2.6270001 -0.69099998 0.27000001
1.432 2.631 -0.69199997 0.28
1.4220001 2.632 -0.69099998 0.28
1.4069999 2.625 -0.68699998 0.27000001
1.398 2.6270001 -0.68599999 0.27000001
1.387 2.6270001 -0.685 0.27000001
1.375 2.622 -0.68199998 0.27000001
1.367 2.628 -0.68300003 0.25999999
1.3609999 2.625 -0.68099999 0.25
1.351 2.628 -0.68099999 0.28
1.3430001 2.632 -0.68099999 0.28
1.3279999 2.622 -0.67699999 0.28999999
1.318 2.6229999 -0.67500001 0.28999999
1.3049999 2.6170001 -0.67199999 0.28999999
1.2970001 2.6229999 -0.67299998 0.28999999
1.289 2.6159999 -0.67000002 0.28
1.288 2.6359999 -0.67500001 0.28999999
1.27 2.619 -0.66900003 0.28
1.255 2.6070001 -0.66399997 0.2
1.253 2.625 -0.66799998 0.14
1.237 2.6129999 -0.66299999 0.20999999
1.2309999 2.6210001 -0.66399997 0.2
1.223 2.6140001 -0.662 0.090000004
1.21 2.6070001 -0.65899998 0.079999998
1.2 2.6070001 -0.65799999 0.039999999
1.193 2.615 -0.65899998 0.07
1.1799999 2.6059999 -0.65499997 0.039999999
1.171 2.6099999 -0.65499997 0.18000001
1.165 2.619 -0.65700001 0.25
1.161 2.619 -0.65600002 0.27000001
1.153 2.6240001 -0.65700001 0.28
1.1440001 2.6259999 -0.65600002 0.28999999
1.1339999 2.6259999 -0.65499997 0.30000001
1.128 2.6329999 -0.65600002 0.28999999
1.117 2.631 -0.65499997 0.30000001
1.105 2.6259999 -0.65200001 0.30000001
1.101 2.6270001 -0.65200001 0.28999999
1.091 2.6259999 -0.64999998 0.28999999
1.0779999 2.618 -0.64700001 0.30000001
1.0700001 2.6229999 -0.648 0.28999999
1.064 2.632 -0.64899999 0.31
1.052 2.625 -0.64600003 0.30000001
1.0420001 2.6240001 -0.64499998 0.31
1.035 2.619 -0.64300001 0.30000001
1.027 2.622 -0.64300001 0.30000001
1.0190001 2.625 -0.64300001 0.30000001
1.008 2.6210001 -0.64099997 0.31
0.99900001 2.6229999 -0.63999999 0.28999999
0.99000001 2.6240001 -0.63999999 0.31
0.98100001 2.6229999 -0.639 0.30000001
0.97600001 2.6229999 -0.63800001 0.30000001
0.96600002 2.622 -0.63700002 0.30000001
0.95700002 2.622 -0.63599998 0.31
0.94599998 2.618 -0.634 0.28999999
0.94099998 2.6300001 -0.63700002 0.31
0.93199998 2.631 -0.63599998 0.30000001
0.91900003 2.6210001 -0.63200003 0.31
0.91900003 2.6329999 -0.63599998 0.30000001
0.91000003 2.6340001 -0.63499999 0.31
0.89499998 2.6170001 -0.62900001 0.28999999
0.88599998 2.618 -0.62900001 0.31
0.87900001 2.6240001 -0.63 0.30000001
0.87 2.625 -0.62900001 0.30000001
0.861 2.6259999 -0.62900001 0.30000001
0.85699999 2.6259999 -0.62800002 0.31
0.84399998 2.6159999 -0.625 0.30000001
0.83899999 2.6259999 -0.62699997 0.31
0.82599998 2.615 -0.62300003 0.31
0.82099998 2.6270001 -0.62599999 0.30000001
0.81400001 2.6329999 -0.62699997 0.31
0.801 2.619 -0.62199998 0.30000001
0.79299998 2.609 -0.61900002 0.28
0.787 2.6170001 -0.62 0.28999999
0.77600002 2.6110001 -0.61799997 0.28999999
0.76899999 2.619 -0.61900002 0.31
0.76099998 2.6229999 -0.62 0.31
0.74900001 2.608 -0.61500001 0.28
0.74400002 2.6240001 -0.61900002 0.31999999
0.73500001 2.6240001 -0.61799997 0.28999999
0.73199999 2.631 -0.62 0.30000001
0.72100002 2.6199999 -0.616 0.31999999
0.713 2.6240001 -0.61699998 0.28999999
0.70200002 2.615 -0.61400002 0.28999999
0.69300002 2.6140001 -0.61299998 0.28999999
0.68599999 2.622 -0.61400002 0.28999999
0.68199998 2.625 -0.61500001 0.31999999
0.67299998 2.6210001 -0.61299998 0.31
0.66100001 2.6099999 -0.60900003 0.28999999
0.65700001 2.6270001 -0.61400002 0.28999999
0.64300001 2.605 -0.60699999 0.31
0.63800001 2.622 -0.611 0.28999999
0.63 2.6240001 -0.611 0.33000001
0.62300003 2.612 -0.60699999 0.31
0.61500001 2.6170001 -0.60799998 0.28999999
0.60299999 2.5999999 -0.60299999 0.30000001
0.59500003 2.6059999 -0.60399997 0.28999999
0.588 2.6140001 -0.60600001 0.28999999
0.58099997 2.619 -0.60699999 0.28999999
0.57099998 2.6129999 -0.60500002 0.28999999
0.56699997 2.6159999 -0.60500002 0.28999999
0.55900002 2.6159999 -0.60500002 0.30000001
0.54699999 2.6010001 -0.60000002 0.31999999
0.54100001 2.6099999 -0.602 0.28999999
0.53200001 2.608 -0.60100001 0.30000001
0.523 2.6059999 -0.60000002 0.28999999
0.51599997 2.615 -0.602 0.28999999
0.509 2.6240001 -0.60399997 0.30000001
0.50199997 2.6099999 -0.60000002 0.31999999
0.493 2.608 -0.59899998 0.28999999
0.48500001 2.6110001 -0.59899998 0.30000001
0.47600001 2.6029999 -0.597 0.28999999
0.46799999 2.6099999 -0.59799999 0.28999999
0.461 2.6159999 -0.59899998 0.30000001
0.45100001 2.609 -0.597 0.31999999
0.447 2.608 -0.597 0.28999999
0.43799999 2.6059999 -0.59600002 0.28999999
0.43000001 2.609 -0.59600002 0.28999999
0.421 2.6010001 -0.59399998 0.28999999
0.412 2.596 -0.59200001 0.30000001
0.40400001 2.6010001 -0.59299999 0.28999999
0.40000001 2.5999999 -0.59299999 0.28999999
0.39399999 2.619 -0.597 0.31999999
0.38299999 2.6010001 -0.59200001 0.28999999
0.375 2.6040001 -0.59299999 0.28999999
0.366 2.599 -0.59100002 0.30000001
0.35699999 2.5910001 -0.588 0.28999999
0.34999999 2.5999999 -0.59100002 0.28999999
0.34599999 2.602 -0.59100002 0.28999999
0.33700001 2.6010001 -0.59100002 0.28999999
0.33000001 2.6059999 -0.59200001 0.28999999
0.322 2.6110001 -0.59299999 0.30000001
0.31200001 2.5969999 -0.588 0.28999999
0.303 2.5940001 -0.58700001 0.30000001
0.296 2.5999999 -0.58899999 0.30000001
0.287 2.596 -0.58700001 0.28999999
0.28200001 2.5899999 -0.58600003 0.28999999
0.27500001 2.6010001 -0.588 0.30000001
0.26699999 2.5999999 -0.588 0.30000001
0.259 2.602 -0.588 0.28999999
0.25 2.596 -0.58600003 0.30000001
0.243 2.6040001 -0.588 0.30000001
0.234 2.599 -0.58700001 0.30000001
0.23 2.596 -0.58600003 0.30000001
0.222 2.598 -0.58600003 0.28999999
0.213 2.5969999 -0.58600003 0.30000001
0.205 2.599 -0.58600003 0.30000001
0.198 2.608 -0.588 0.30000001
0.189 2.599 -0.58600003 0.30000001
0.18000001 2.592 -0.58399999 0.30000001
0.176 2.5999999 -0.58600003 0.30000001
0.168 2.592 -0.58399999 0.28999999
0.16 2.595 -0.58399999 0.31
0.152 2.6010001 -0.58600003 0.30000001
0.14399999 2.598 -0.58499998 0.30000001
0.13600001 2.6040001 -0.58600003 0.30000001
0.127 2.5910001 -0.583 0.30000001
0.123 2.6010001 -0.58499998 0.28999999
0.115 2.5929999 -0.583 0.30000001
0.107 2.598 -0.58399999 0.30000001
0.098999999 2.5940001 -0.583 0.30000001
0.090999998 2.6040001 -0.58600003 0.30000001
0.082000002 2.5929999 -0.583 0.30000001
0.074000001 2.595 -0.583 0.30000001
0.07 2.595 -0.583 0.31
0.061999999 2.595 -0.583 0.30000001
0.054000001 2.5969999 -0.58399999 0.28999999
0.046 2.5899999 -0.58200002 0.31
0.037 2.592 -0.58200002 0.28999999
0.028999999 2.596 -0.583 0.30000001
0.021 2.598 -0.58399999 0.30000001
0.017000001 2.602 -0.58499998 0.30000001
0.0089999996 2.5940001 -0.583 0.31
0.001 2.5899999 -0.58200002 0.28
-0.0070000002 2.598 -0.58399999 0.25999999
-0.016000001 2.592 -0.58200002 0.30000001
-0.024 2.5899999 -0.58200002 0.30000001
-0.032000002 2.598 -0.58399999 0.30000001
-0.035999998 2.5880001 -0.58099997 0.31
-0.044 2.5899999 -0.58200002 0.30000001
-0.052000001 2.5940001 -0.583 0.30000001
-0.059999999 2.5899999 -0.58200002 0.30000001
-0.068000004 2.589 -0.58200002 0.30000001
-0.077 2.5910001 -0.58200002 0.30000001
-0.085000001 2.5869999 -0.58099997 0.31
-0.089000002 2.5929999 -0.583 0.30000001
-0.097000003 2.586 -0.58099997 0.30000001
-0.105 2.5899999 -0.58200002 0.30000001
-0.113 2.5899999 -0.58200002 0.30000001
-0.121 2.5910001 -0.583 0.31
-0.13 2.5910001 -0.583 0.30000001
-0.13699999 2.585 -0.58099997 0.30000001
-0.142 2.586 -0.58200002 0.31
-0.15000001 2.592 -0.583 0.30000001
-0.15800001 2.595 -0.58399999 0.28999999
-0.16599999 2.5929999 -0.58399999 0.31
-0.17399999 2.5899999 -0.583 0.30000001
-0.183 2.5899999 -0.583 0.30000001
-0.191 2.5929999 -0.58399999 0.30000001
-0.19499999 2.5869999 -0.583 0.30000001
-0.20299999 2.5899999 -0.58399999 0.28999999
-0.211 2.589 -0.58399999 0.31
-0.22 2.596 -0.58600003 0.31999999
-0.228 2.5899999 -0.58399999 0.30000001
-0.235 2.585 -0.583 0.30000001
-0.244 2.592 -0.58499998 0.30000001
-0.249 2.596 -0.58600003 0.28999999
-0.257 2.5929999 -0.58600003 0.30000001
-0.26499999 2.5940001 -0.58600003 0.28999999
-0.273 2.5869999 -0.58499998 0.28999999
-0.28099999 2.589 -0.58499998 0.30000001
-0.289 2.5880001 -0.58499998 0.28999999
-0.29800001 2.5910001 -0.58600003 0.30000001
-0.303 2.596 -0.588 0.31
-0.31099999 2.599 -0.58899999 0.30000001
-0.31799999 2.5840001 -0.58499998 0.28999999
-0.32699999 2.5910001 -0.58700001 0.31
-0.33399999 2.586 -0.58600003 0.30000001
-0.34299999 2.5869999 -0.58700001 0.28999999
-0.352 2.5929999 -0.58899999 0.30000001
-0.35600001 2.595 -0.58999997 0.30000001
-0.36399999 2.592 -0.58899999 0.28999999
-0.37200001 2.589 -0.588 0.30000001
-0.38100001 2.5929999 -0.58999997 0.30000001
-0.38999999 2.596 -0.59100002 0.28999999
-0.39899999 2.598 -0.59200001 0.30000001
-0.40599999 2.595 -0.59200001 0.28999999
-0.412 2.602 -0.59399998 0.30000001
-0.419 2.595 -0.59200001 0.30000001
-0.428 2.5999999 -0.59399998 0.30000001
-0.43599999 2.5940001 -0.59299999 0.30000001
-0.44400001 2.5969999 -0.59399998 0.31
-0.45300001 2.595 -0.59399998 0.28999999
-0.46200001 2.602 -0.59600002 0.28999999
-0.46599999 2.5969999 -0.59500003 0.30000001
-0.47600001 2.605 -0.597 0.28999999
-0.48300001 2.598 -0.59600002 0.28999999
-0.49000001 2.5929999 -0.59500003 0.30000001
-0.5 2.602 -0.59799999 0.30000001
-0.50599998 2.589 -0.59500003 0.28999999
-0.51599997 2.5929999 -0.59600002 0.30000001
-0.51999998 2.595 -0.597 0.28999999
-0.52700001 2.589 -0.59600002 0.28999999
-0.53799999 2.6010001 -0.59899998 0.30000001
-0.546 2.5969999 -0.59899998 0.28999999
-0.55299997 2.5880001 -0.597 0.28999999
-0.56 2.5840001 -0.59600002 0.30000001
-0.57200003 2.5969999 -0.60100001 0.28999999
-0.57499999 2.5910001 -0.59899998 0.28999999
-0.58399999 2.595 -0.60100001 0.31
-0.59399998 2.5999999 -0.60299999 0.28999999
-0.60399997 2.6059999 -0.60500002 0.28999999
-0.611 2.5999999 -0.60399997 0.31999999
-0.61900002 2.595 -0.60299999 0.28999999
-0.62800002 2.598 -0.60399997 0.28999999
-0.63499999 2.5910001 -0.60299999 0.30000001
-0.63800001 2.5880001 -0.602 0.28999999
-0.64999998 2.6010001 -0.60600001 0.28999999
-0.65600002 2.5880001 -0.60299999 0.30000001
-0.66900003 2.6059999 -0.60900003 0.30000001
-0.67400002 2.5929999 -0.60600001 0.28999999
-0.68300003 2.592 -0.60600001 0.30000001
-0.69400001 2.5999999 -0.60900003 0.30000001
-0.69700003 2.5969999 -0.60799998 0.28999999
-0.70599997 2.5940001 -0.60799998 0.28999999
-0.71600002 2.6010001 -0.611 0.31
-0.72299999 2.5940001 -0.60900003 0.28
-0.73100001 2.5910001 -0.60900003 0.30000001
-0.74199998 2.5999999 -0.61299998 0.31
-0.74800003 2.5899999 -0.61000001 0.28999999
-0.755 2.5969999 -0.61299998 0.31999999
-0.76599997 2.605 -0.616 0.30000001
-0.773 2.599 -0.61500001 0.30000001
-0.77999997 2.5929999 -0.61400002 0.30000001
-0.79299998 2.6040001 -0.61699998 0.30000001
-0.80000001 2.599 -0.61699998 0.28
-0.80599999 2.589 -0.61500001 0.31999999
-0.81400001 2.6010001 -0.61799997 0.31
-0.82700002 2.6110001 -0.62199998 0.30000001
-0.82999998 2.596 -0.61799997 0.31
-0.84200001 2.602 -0.62099999 0.30000001
-0.85299999 2.609 -0.62400001 0.30000001
-0.85399997 2.586 -0.61799997 0.31
-0.86500001 2.5910001 -0.62 0.28999999
-0.87099999 2.595 -0.62099999 0.28999999
-0.88 2.596 -0.62300003 0.31
-0.89200002 2.6040001 -0.62599999 0.30000001
-0.89899999 2.595 -0.62400001 0.28999999
-0.90100002 2.5780001 -0.62 0.31
-0.91399997 2.5880001 -0.62400001 0.31
-0.92199999 2.585 -0.62400001 0.28
-0.92799997 2.5869999 -0.625 0.31999999
-0.93800002 2.5899999 -0.62599999 0.30000001
-0.949 2.596 -0.62900001 0.30000001
-0.95499998 2.5869999 -0.62699997 0.31
-0.96899998 2.599 -0.63099998 0.30000001
-0.97600001 2.592 -0.63 0.30000001
-0.98299998 2.585 -0.62900001 0.30000001
-0.98799998 2.5869999 -0.63 0.30000001
-1.001 2.5969999 -0.634 0.30000001
-1.006 2.5869999 -0.63200003 0.30000001
-1.02 2.596 -0.63599998 0.30000001
-1.027 2.5910001 -0.63499999 0.28999999
-1.035 2.5880001 -0.63499999 0.30000001
-1.045 2.5880001 -0.63599998 0.30000001
-1.052 2.5929999 -0.63800001 0.31
-1.0599999 2.5899999 -0.63800001 0.30000001
-1.073 2.599 -0.64200002 0.31
-1.077 2.585 -0.639 0.30000001
-1.0880001 2.589 -0.64099997 0.31
-1.1 2.5940001 -0.64399999 0.30000001
-1.1059999 2.586 -0.64200002 0.31
-1.113 2.5910001 -0.64399999 0.30000001
-1.119 2.582 -0.64200002 0.28
-1.133 2.5929999 -0.64700001 0.31
-1.143 2.5929999 -0.648 0.31
-1.152 2.5910001 -0.648 0.30000001
-1.159 2.5840001 -0.64700001 0.30000001
-1.17 2.5869999 -0.64899999 0.30000001
-1.179 2.596 -0.65200001 0.31
-1.187 2.592 -0.65200001 0.30000001
-1.196 2.5899999 -0.653 0.30000001
-1.209 2.5969999 -0.65600002 0.30000001
-1.219 2.596 -0.65700001 0.30000001
-1.229 2.596 -0.65799999 0.30000001
-1.239 2.596 -0.65899998 0.30000001
-1.242 2.592 -0.65899998 0.28999999
-1.252 2.5910001 -0.66000003 0.31
-1.261 2.5910001 -0.66100001 0.30000001
-1.272 2.592 -0.662 0.30000001
-1.284 2.595 -0.66399997 0.30000001
-1.293 2.5929999 -0.66500002 0.30000001
-1.302 2.5899999 -0.66600001 0.28999999
-1.314 2.5929999 -0.66799998 0.30000001
-1.321 2.598 -0.67000002 0.28999999
-1.325 2.585 -0.667 0.28999999
-1.34 2.595 -0.671 0.28999999
-1.347 2.589 -0.671 0.28999999
-1.359 2.5910001 -0.67299998 0.28999999
-1.368 2.589 -0.67299998 0.28999999
-1.383 2.596 -0.67699999 0.28999999
-1.385 2.5910001 -0.676 0.28999999
-1.397 2.5929999 -0.67799997 0.28999999
-1.403 2.585 -0.67699999 0.31
-1.419 2.5940001 -0.68099999 0.25999999
-1.426 2.5880001 -0.68099999 0.28
-1.443 2.599 -0.685 0.28999999
-1.451 2.5940001 -0.685 0.27000001
-1.467 2.6140001 -0.69199997 0.31
-1.466 2.592 -0.68699998 0.30000001
-1.473 2.586 -0.68599999 0.28999999
-1.4859999 2.5899999 -0.68900001 0.28999999
-1.502 2.598 -0.69300002 0.28999999
-1.516 2.6040001 -0.69599998 0.28999999
-1.516 2.595 -0.69400001 0.30000001
-1.5319999 2.6029999 -0.699 0.28999999
-1.535 2.5880001 -0.69499999 0.28999999
-1.548 2.592 -0.69800001 0.27000001
-1.541 2.562 -0.69 0.17
-1.563 2.5799999 -0.69700003 0.31
-1.5700001 2.5739999 -0.69700003 0
-1.5930001 2.5929999 -0.70499998 0
-1.598 2.5910001 -0.70499998 0
-1.6210001 2.6099999 -0.713 0
-1.6390001 2.6199999 -0.71700001 0
-1.652 2.6229999 -0.72000003 0
-1.6569999 2.6129999 -0.71799999 0
-1.6799999 2.6300001 -0.72600001 0
-1.684 2.618 -0.72399998 0
-3.6229999 5.5209999 -1.671 0.17
-3.612 5.467 -1.6569999 0.41999999
-3.6429999 5.4770002 -1.664 0.38
-3.6919999 5.5120001 -1.679 0.36000001
-3.7190001 5.5139999 -1.684 0.38
-3.7349999 5.5009999 -1.684 0.30000001
-3.7349999 5.4829998 -1.679 0.47
-3.763 5.487 -1.6849999 0.31
-3.7739999 5.4650002 -1.682 0.41999999
-3.7820001 5.441 -1.677 0.38999999
-3.77 5.388 -1.664 0.41999999
-3.816 5.4169998 -1.677 0.34999999
-3.8399999 5.414 -1.6799999 0.36000001
-3.8380001 5.3940001 -1.676 0.36000001
-3.858 5.3870001 -1.677 0.38
-3.8870001 5.3899999 -1.683 0.41
-3.8989999 5.3720002 -1.6799999 0.34
-3.904 5.3439999 -1.675 0.33000001
-3.927 5.3390002 -1.678 0.40000001
-3.9460001 5.3299999 -1.679 0.38
-3.9660001 5.3390002 -1.684 0.38
-3.9820001 5.3249998 -1.684 0.43000001
-4.0100002 5.3280001 -1.689 0.30000001
-4.0310001 5.322 -1.691 0.44
-4.0479999 5.309 -1.691 0.34999999
-4.0780001 5.3130002 -1.697 0.33000001
-4.0970001 5.303 -1.698 0.36000001
-4.112 5.3060002 -1.701 0.38999999
-4.1300001 5.2950001 -1.701 0.38999999
-4.1490002 5.2849998 -1.7029999 0.34
-4.1570001 5.2610002 -1.699 0.38
-4.1789999 5.2540002 -1.701 0.33000001
-4.1939998 5.2389998 -1.7 0.31999999
-4.2179999 5.2350001 -1.704 0.36000001
-4.2210002 5.2220001 -1.701 0.34999999
-4.2389998 5.211 -1.702 0.33000001
-4.2350001 5.1729999 -1.694 0.34
-4.277 5.191 -1.705 0.31
-4.2989998 5.184 -1.707 0.31999999
-4.3109999 5.1659999 -1.705 0.41
-4.3260002 5.151 -1.705 0.31999999
-4.3369999 5.1469998 -1.706 0.31999999
-4.3730001 5.1570001 -1.714 0.31999999
-4.3920002 5.1459999 -1.715 0.28
-4.4190001 5.145 -1.72 0.34
-4.4559999 5.1550002 -1.728 0.34
-4.4650002 5.1329999 -1.726 0.28999999
-3.98 4.5500002 -1.52 0.16
-3.957 4.5110002 -1.508 0.44999999
-4.0100002 4.5419998 -1.523 0
-3.835 4.3179998 -1.446 0
-3.8299999 4.2859998 -1.439 0
-3.7909999 4.2150002 -1.4170001 0
-3.789 4.1869998 -1.4119999 0.12
-3.767 4.1370001 -1.398 0.14
-3.7839999 4.1430001 -1.402 0.15000001
-3.7609999 4.0910001 -1.387 0.93000001
-3.7720001 4.0780001 -1.387 0.79000002
-3.793 4.0739999 -1.39 0.87
-3.7750001 4.0300002 -1.378 0.91000003
-3.773 4.0029998 -1.372 0.77999997
-3.756 3.96 -1.36 0.80000001
-3.779 3.96 -1.365 0.82999998
-3.7750001 3.9430001 -1.36 0.83999997
-3.793 3.9360001 -1.362 0.85000002
-3.76 3.8789999 -1.345 0.91000003
-3.77 3.8640001 -1.344 0.91000003
-3.789 3.859 -1.347 0.87
-3.756 3.802 -1.329 0.92000002
-3.773 3.796 -1.332 0.88
-3.7850001 3.7950001 -1.334 0.86000001
-3.7620001 3.75 -1.321 0.74000001
-3.7219999 3.6860001 -1.301 0.34999999
